ply
format ascii 1.0
element vertex 1197
property float x
property float y
property float z
property uchar red
property uchar green
property uchar blue
end_header
4.312500 -4.437500 -16.000000 62 65 45
4.375000 -4.437500 -16.000000 64 66 45
4.437500 -4.437500 -16.000000 67 70 43
4.500000 -4.437500 -16.000000 77 82 50
4.562500 -4.437500 -16.000000 81 86 58
4.625000 -4.437500 -16.000000 77 81 59
5.562500 -4.437500 -16.000000 160 165 136
5.625000 -4.437500 -16.000000 160 164 134
5.687500 -4.437500 -16.000000 159 164 132
5.750000 -4.437500 -16.000000 159 164 131
5.812500 -4.437500 -16.000000 159 164 132
5.875000 -4.437500 -16.000000 159 164 132
5.937500 -4.437500 -16.000000 159 164 132
6.000000 -4.437500 -16.000000 159 163 133
6.062500 -4.437500 -16.000000 163 167 136
6.125000 -4.437500 -16.000000 156 155 126
2.482759 -1.780564 -6.420063 95 87 64
2.492212 -1.769470 -6.380062 48 37 19
2.489985 -1.750385 -6.311248 44 35 15
2.526316 -1.758514 -6.340557 40 33 13
6.437500 -4.437500 -16.000000 35 30 13
6.500000 -4.437500 -16.000000 33 28 13
6.562500 -4.437500 -16.000000 31 26 10
6.625000 -4.437500 -16.000000 29 23 9
6.687500 -4.437500 -16.000000 29 24 12
6.750000 -4.437500 -16.000000 27 23 10
6.812500 -4.437500 -16.000000 24 21 7
6.875000 -4.437500 -16.000000 22 21 6
6.937500 -4.437500 -16.000000 21 20 7
7.000000 -4.437500 -16.000000 22 20 10
7.062500 -4.437500 -16.000000 24 20 13
7.125000 -4.437500 -16.000000 26 20 13
7.187500 -4.437500 -16.000000 26 20 9
7.250000 -4.437500 -16.000000 27 20 6
7.312500 -4.437500 -16.000000 27 21 5
7.375000 -4.437500 -16.000000 28 22 4
7.437500 -4.437500 -16.000000 30 23 3
7.500000 -4.437500 -16.000000 31 23 2
7.562500 -4.437500 -16.000000 30 24 1
7.625000 -4.437500 -16.000000 29 24 1
5.141487 -2.724221 -9.822542 25 23 8
5.255475 -2.763990 -9.965937 28 25 8
5.294404 -2.763990 -9.965937 29 25 6
5.333333 -2.763990 -9.965937 28 25 5
5.451852 -2.804938 -10.113581 28 26 9
5.504951 -2.811881 -10.138614 19 21 9
5.544554 -2.811881 -10.138614 50 61 48
5.584158 -2.811881 -10.138614 126 143 122
5.637717 -2.818859 -10.163772 136 147 122
5.677419 -2.818859 -10.163772 138 144 121
5.717122 -2.818859 -10.163772 138 143 123
5.686275 -2.784314 -10.039216 137 143 125
5.683698 -2.763990 -9.965937 138 142 123
5.722628 -2.763990 -9.965937 138 142 123
-8.682594 -3.931741 -13.979522 110 83 34
-8.657535 -3.945205 -14.027397 106 81 37
-8.544218 -3.918367 -13.931973 105 79 35
-8.375839 -3.865772 -13.744967 107 81 32
-8.322147 -3.865772 -13.744967 106 80 28
-8.300342 -3.931741 -13.979522 97 75 29
-8.245734 -3.931741 -13.979522 100 78 32
-9.062500 -4.500000 -16.000000 106 82 32
-9.000000 -4.500000 -16.000000 110 87 37
-8.937500 -4.500000 -16.000000 114 90 38
-8.541353 -4.330827 -15.398497 116 92 37
-8.233577 -4.204380 -14.948905 114 90 38
-7.887324 -4.056338 -14.422535 111 86 38
-7.830986 -4.056338 -14.422535 108 83 35
-8.177778 -4.266667 -15.170370 110 85 35
-8.148699 -4.282528 -15.226766 111 87 37
-8.029520 -4.250923 -15.114391 111 86 38
-7.941176 -4.235294 -15.058824 110 85 37
-7.970260 -4.282528 -15.226766 113 90 41
-7.910781 -4.282528 -15.226766 113 91 42
-7.851301 -4.282528 -15.226766 115 91 40
-7.850187 -4.314607 -15.340824 118 94 37
-8.125000 -4.500000 -16.000000 119 95 36
-8.062500 -4.500000 -16.000000 117 93 36
-8.000000 -4.500000 -16.000000 115 92 37
-7.937500 -4.500000 -16.000000 116 94 40
-7.875000 -4.500000 -16.000000 113 91 42
-7.812500 -4.500000 -16.000000 112 89 42
-7.486793 -4.347170 -15.456604 114 89 39
-7.261992 -4.250923 -15.114391 117 92 34
-7.176471 -4.235294 -15.058824 118 93 31
-7.117647 -4.235294 -15.058824 113 89 28
-1.890909 -1.163636 -4.137374 18 15 5
-1.865327 -1.157789 -4.116583 21 19 7
-1.845537 -1.155466 -4.108325 31 29 9
-1.825826 -1.153153 -4.100100 46 45 20
-1.800797 -1.147410 -4.079681 49 49 28
-1.795591 -1.154309 -4.104208 38 36 24
-5.205970 -3.438806 -12.226866 124 122 84
-5.142857 -3.428571 -12.190476 148 150 109
-5.095238 -3.428571 -12.190476 142 145 109
-5.562500 -4.500000 -16.000000 140 141 106
-5.500000 -4.500000 -16.000000 140 141 105
-5.437500 -4.500000 -16.000000 140 141 106
-5.375000 -4.500000 -16.000000 140 141 107
-5.312500 -4.500000 -16.000000 139 140 106
-5.250000 -4.500000 -16.000000 138 140 105
-5.187500 -4.500000 -16.000000 138 141 105
-5.125000 -4.500000 -16.000000 138 141 107
-5.062500 -4.500000 -16.000000 136 141 107
-5.000000 -4.500000 -16.000000 136 140 104
-4.937500 -4.500000 -16.000000 137 139 100
-4.875000 -4.500000 -16.000000 138 139 98
-4.812500 -4.500000 -16.000000 136 137 98
-4.750000 -4.500000 -16.000000 132 133 97
-4.687500 -4.500000 -16.000000 133 134 98
-4.625000 -4.500000 -16.000000 133 135 99
-4.500000 -4.500000 -16.000000 135 138 100
-4.437500 -4.500000 -16.000000 136 138 100
-4.375000 -4.500000 -16.000000 137 138 100
-0.460342 -0.895801 -3.185070 86 74 37
-0.446166 -0.892332 -3.172734 58 42 13
-0.433772 -0.892332 -3.172734 59 40 16
-0.422688 -0.895105 -3.182595 60 42 18
-0.335745 -0.833575 -2.963820 52 40 16
-0.322070 -0.828181 -2.944644 48 37 15
-0.326531 -0.870748 -3.095994 47 38 16
-0.182673 -0.773674 -2.750839 43 33 14
-0.171009 -0.769539 -2.736139 44 34 12
-0.159151 -0.763926 -2.716180 44 35 10
-0.147952 -0.760898 -2.705416 42 32 9
-0.136752 -0.757396 -2.692965 45 33 13
-0.125902 -0.755410 -2.685902 44 33 13
-0.114958 -0.752449 -2.675375 76 73 48
-0.104507 -0.752449 -2.675375 143 146 111
-0.243243 -1.945946 -6.918919 147 149 112
-0.220690 -1.986207 -7.062069 88 90 56
-0.193437 -1.989637 -7.074266 64 67 41
-0.119403 -4.298508 -15.283582 76 76 53
-0.059259 -4.266667 -15.170370 82 81 53
0.000000 -4.250923 -15.114391 79 79 52
0.058608 -4.219780 -15.003663 77 77 53
0.111888 -4.027972 -14.321678 77 77 56
0.158940 -3.814569 -13.562914 76 78 56
0.211221 -3.801980 -13.518152 73 76 56
0.262295 -3.777049 -13.429508 72 75 56
0.316832 -3.801980 -13.518152 73 76 56
0.374582 -3.852843 -13.698997 75 79 56
0.432432 -3.891892 -13.837838 78 81 56
0.491468 -3.931741 -13.979522 78 81 55
0.551724 -3.972414 -14.124138 80 83 55
0.615385 -4.027972 -14.321678 79 82 55
0.698182 -4.189091 -14.894546 77 79 55
0.764706 -4.235294 -15.058824 76 78 54
0.823529 -4.235294 -15.058824 78 79 54
0.875912 -4.204380 -14.948905 79 80 54
0.901408 -4.056338 -14.422535 79 80 51
0.954386 -4.042105 -14.371930 83 83 52
1.312500 -4.500000 -16.000000 68 71 50
1.375000 -4.500000 -16.000000 67 70 51
1.437500 -4.500000 -16.000000 63 67 48
1.500000 -4.500000 -16.000000 62 66 44
1.562500 -4.500000 -16.000000 62 66 44
1.625000 -4.500000 -16.000000 61 64 46
1.687500 -4.500000 -16.000000 60 64 51
1.750000 -4.500000 -16.000000 60 64 53
1.812500 -4.500000 -16.000000 61 65 54
1.875000 -4.500000 -16.000000 60 64 52
1.937500 -4.500000 -16.000000 62 66 50
2.000000 -4.500000 -16.000000 62 66 48
2.062500 -4.500000 -16.000000 61 65 48
2.125000 -4.500000 -16.000000 60 65 49
2.187500 -4.500000 -16.000000 60 65 49
2.250000 -4.500000 -16.000000 60 65 48
2.312500 -4.500000 -16.000000 61 65 48
2.375000 -4.500000 -16.000000 61 64 47
2.437500 -4.500000 -16.000000 61 64 45
2.500000 -4.500000 -16.000000 63 67 45
2.562500 -4.500000 -16.000000 64 68 45
2.625000 -4.500000 -16.000000 66 70 49
2.687500 -4.500000 -16.000000 67 71 50
2.750000 -4.500000 -16.000000 71 74 50
2.812500 -4.500000 -16.000000 73 77 51
2.875000 -4.500000 -16.000000 73 77 56
2.937500 -4.500000 -16.000000 72 76 61
3.000000 -4.500000 -16.000000 72 76 61
3.062500 -4.500000 -16.000000 67 71 54
3.125000 -4.500000 -16.000000 63 66 48
3.187500 -4.500000 -16.000000 61 65 47
3.250000 -4.500000 -16.000000 64 67 51
3.312500 -4.500000 -16.000000 62 67 49
3.375000 -4.500000 -16.000000 62 67 46
3.437500 -4.500000 -16.000000 64 68 45
3.500000 -4.500000 -16.000000 64 68 47
3.562500 -4.500000 -16.000000 62 66 49
3.625000 -4.500000 -16.000000 62 64 51
3.687500 -4.500000 -16.000000 61 63 54
3.750000 -4.500000 -16.000000 58 60 53
3.812500 -4.500000 -16.000000 58 61 56
3.875000 -4.500000 -16.000000 57 60 56
3.937500 -4.500000 -16.000000 57 60 54
4.000000 -4.500000 -16.000000 58 61 51
4.062500 -4.500000 -16.000000 60 63 48
4.125000 -4.500000 -16.000000 59 63 43
4.187500 -4.500000 -16.000000 60 65 43
4.250000 -4.500000 -16.000000 61 64 45
4.312500 -4.500000 -16.000000 60 63 47
4.375000 -4.500000 -16.000000 63 65 49
4.437500 -4.500000 -16.000000 65 68 48
4.500000 -4.500000 -16.000000 70 73 53
4.562500 -4.500000 -16.000000 75 79 60
4.625000 -4.500000 -16.000000 79 82 62
4.687500 -4.500000 -16.000000 75 78 56
5.562500 -4.500000 -16.000000 159 163 133
5.625000 -4.500000 -16.000000 159 163 135
5.687500 -4.500000 -16.000000 159 163 133
5.750000 -4.500000 -16.000000 158 163 130
5.812500 -4.500000 -16.000000 159 163 129
5.875000 -4.500000 -16.000000 159 163 129
5.937500 -4.500000 -16.000000 158 163 129
6.000000 -4.500000 -16.000000 158 163 132
6.062500 -4.500000 -16.000000 158 163 134
6.125000 -4.500000 -16.000000 164 167 137
6.187500 -4.500000 -16.000000 152 148 124
2.465331 -1.775038 -6.311248 87 74 59
2.482335 -1.769585 -6.291859 48 33 21
2.487805 -1.756098 -6.243902 41 32 16
2.504559 -1.750760 -6.224924 36 32 15
6.500000 -4.500000 -16.000000 33 30 13
6.562500 -4.500000 -16.000000 33 29 10
6.625000 -4.500000 -16.000000 30 26 9
6.687500 -4.500000 -16.000000 29 25 12
6.750000 -4.500000 -16.000000 29 25 10
6.812500 -4.500000 -16.000000 25 22 5
6.875000 -4.500000 -16.000000 24 22 4
6.937500 -4.500000 -16.000000 24 22 6
7.000000 -4.500000 -16.000000 24 21 8
7.062500 -4.500000 -16.000000 24 21 11
7.125000 -4.500000 -16.000000 25 22 14
7.187500 -4.500000 -16.000000 26 22 10
7.250000 -4.500000 -16.000000 26 22 6
7.312500 -4.500000 -16.000000 27 22 7
7.375000 -4.500000 -16.000000 27 22 7
7.437500 -4.500000 -16.000000 30 24 6
7.500000 -4.500000 -16.000000 31 26 5
7.562500 -4.500000 -16.000000 30 26 4
5.279597 -2.901763 -10.317380 32 28 9
5.214815 -2.844445 -10.113581 30 26 9
5.054632 -2.736342 -9.729217 29 24 7
5.092637 -2.736342 -9.729217 27 21 4
5.179856 -2.762590 -9.822542 29 22 3
5.281553 -2.796117 -9.941748 30 24 2
5.333333 -2.802920 -9.965937 30 25 2
5.385366 -2.809756 -9.990244 30 25 5
5.491358 -2.844445 -10.113581 20 20 6
5.530864 -2.844445 -10.113581 35 41 31
5.584158 -2.851485 -10.138614 117 131 113
5.623763 -2.851485 -10.138614 137 148 123
5.635468 -2.837438 -10.088670 137 143 120
5.647059 -2.823529 -10.039216 137 142 122
5.576923 -2.769231 -9.846154 138 142 123
5.601919 -2.762590 -9.822542 138 142 121
5.653846 -2.769231 -9.846154 138 142 120
5.761557 -2.802920 -9.965937 138 142 122
-8.682594 -3.986348 -13.979522 107 82 36
-8.657535 -4.000000 -14.027397 105 78 34
-8.544218 -3.972789 -13.931973 105 78 33
-8.404040 -3.932660 -13.791245 105 79 34
-8.406779 -3.959322 -13.884746 103 78 33
-8.496552 -4.027586 -14.124138 101 77 31
-8.441380 -4.027586 -14.124138 98 74 27
-8.300342 -3.986348 -13.979522 98 74 28
-8.217687 -3.972789 -13.931973 99 75 30
-8.191126 -3.986348 -13.979522 106 83 36
-9.062500 -4.562500 -16.000000 107 83 28
-9.000000 -4.562500 -16.000000 111 88 33
-8.350365 -4.262774 -14.948905 113 91 38
-8.291971 -4.262774 -14.948905 114 91 39
-8.000000 -4.141844 -14.524822 113 90 39
-7.777778 -4.055555 -14.222222 111 85 36
-7.695502 -4.041523 -14.173011 109 83 33
-8.117647 -4.294117 -15.058824 111 83 32
-8.088561 -4.309963 -15.114391 111 85 34
-8.000000 -4.294117 -15.058824 110 86 39
-7.910112 -4.374532 -15.340824 115 91 41
-7.850187 -4.374532 -15.340824 118 95 42
-7.790262 -4.374532 -15.340824 117 95 38
-8.062500 -4.562500 -16.000000 116 93 37
-8.000000 -4.562500 -16.000000 114 90 37
-7.937500 -4.562500 -16.000000 113 88 39
-7.875000 -4.562500 -16.000000 112 87 39
-7.518797 -4.390977 -15.398497 111 87 38
-7.402985 -4.358209 -15.283582 112 88 36
-7.261992 -4.309963 -15.114391 115 92 35
-7.176471 -4.294117 -15.058824 115 92 32
-2.521739 -1.586957 -5.565217 22 18 5
-2.493225 -1.582656 -5.550136 36 32 12
-2.458221 -1.574124 -5.520216 47 46 22
-1.817085 -1.173869 -4.116583 47 46 28
-5.205970 -3.486567 -12.226866 130 134 99
-5.142857 -3.476191 -12.190476 144 150 113
-5.125749 -3.497006 -12.263474 141 145 113
-5.562500 -4.562500 -16.000000 140 142 105
-5.500000 -4.562500 -16.000000 140 141 104
-5.437500 -4.562500 -16.000000 139 140 106
-5.375000 -4.562500 -16.000000 138 139 109
-5.312500 -4.562500 -16.000000 139 139 108
-5.250000 -4.562500 -16.000000 139 139 105
-5.187500 -4.562500 -16.000000 138 139 103
-5.125000 -4.562500 -16.000000 137 139 100
-5.062500 -4.562500 -16.000000 137 141 101
-5.000000 -4.562500 -16.000000 136 140 100
-4.937500 -4.562500 -16.000000 138 140 98
-4.875000 -4.562500 -16.000000 138 139 98
-4.812500 -4.562500 -16.000000 135 136 100
-4.750000 -4.562500 -16.000000 132 134 102
-4.437500 -4.562500 -16.000000 135 138 101
-4.375000 -4.562500 -16.000000 137 137 100
-1.181818 -2.212121 -7.757576 147 143 101
-0.474259 -0.911076 -3.195008 109 97 58
-0.460342 -0.908243 -3.185070 64 45 15
-0.447205 -0.906832 -3.180124 60 41 15
-0.433772 -0.904725 -3.172734 58 40 16
-0.421705 -0.905426 -3.175194 57 39 14
-0.416404 -0.921136 -3.230284 59 43 17
-0.391167 -0.921136 -3.230284 54 41 18
-0.358301 -0.901931 -3.162934 49 41 24
-0.339651 -0.885519 -3.105383 46 38 23
-0.326531 -0.882842 -3.095994 45 37 21
-0.313489 -0.880181 -3.086662 44 36 19
-0.900000 -3.650000 -12.800000 46 37 15
-0.184532 -0.792402 -2.778833 45 35 18
-0.171927 -0.784419 -2.750839 43 34 15
-0.159893 -0.778148 -2.728848 43 34 11
-0.147952 -0.771466 -2.705416 44 34 10
-0.136752 -0.767916 -2.692965 46 35 12
-0.125902 -0.765902 -2.685902 48 36 12
-0.115033 -0.763399 -2.677124 103 97 63
-0.104575 -0.763399 -2.677124 154 154 110
-0.245315 -1.989779 -6.977853 145 144 105
-0.220690 -2.013793 -7.062069 82 80 51
-0.193103 -2.013793 -7.062069 64 65 47
-0.119403 -4.358209 -15.283582 77 77 53
-0.059041 -4.309963 -15.114391 80 80 53
0.000000 -4.278389 -15.003663 81 79 54
0.058182 -4.247272 -14.894546 79 79 53
0.111498 -4.069686 -14.271777 79 79 51
0.159468 -3.880399 -13.607973 77 79 49
0.211921 -3.867550 -13.562914 75 77 52
0.264026 -3.854785 -13.518152 74 77 55
0.321070 -3.906354 -13.698997 75 78 56
0.377104 -3.932660 -13.791245 77 80 59
0.432432 -3.945946 -13.837838 78 81 59
0.486486 -3.945946 -13.837838 79 83 58
0.546075 -3.986348 -13.979522 79 82 56
0.611111 -4.055555 -14.222222 75 78 55
0.676056 -4.112676 -14.422535 74 76 58
0.756364 -4.247272 -14.894546 73 75 57
0.814545 -4.247272 -14.894546 76 78 57
0.848057 -4.127209 -14.473498 79 82 59
0.898246 -4.098246 -14.371930 81 83 59
1.312500 -4.562500 -16.000000 66 68 54
1.375000 -4.562500 -16.000000 64 67 54
1.437500 -4.562500 -16.000000 63 66 50
1.500000 -4.562500 -16.000000 61 64 45
1.562500 -4.562500 -16.000000 60 63 45
1.625000 -4.562500 -16.000000 59 62 47
1.687500 -4.562500 -16.000000 58 62 48
1.750000 -4.562500 -16.000000 61 65 53
1.812500 -4.562500 -16.000000 58 62 49
1.875000 -4.562500 -16.000000 61 65 48
1.937500 -4.562500 -16.000000 63 67 47
2.000000 -4.562500 -16.000000 62 66 47
2.062500 -4.562500 -16.000000 64 68 48
2.125000 -4.562500 -16.000000 63 68 46
2.187500 -4.562500 -16.000000 64 69 46
2.250000 -4.562500 -16.000000 63 69 45
2.312500 -4.562500 -16.000000 64 69 47
2.375000 -4.562500 -16.000000 63 67 47
2.437500 -4.562500 -16.000000 63 66 46
2.500000 -4.562500 -16.000000 63 67 47
2.562500 -4.562500 -16.000000 64 67 49
2.625000 -4.562500 -16.000000 67 70 55
2.687500 -4.562500 -16.000000 70 73 57
2.750000 -4.562500 -16.000000 71 75 54
2.812500 -4.562500 -16.000000 72 76 53
2.875000 -4.562500 -16.000000 71 75 56
2.937500 -4.562500 -16.000000 71 73 60
3.000000 -4.562500 -16.000000 69 73 59
3.062500 -4.562500 -16.000000 65 70 53
3.125000 -4.562500 -16.000000 64 68 49
3.187500 -4.562500 -16.000000 63 67 50
3.250000 -4.562500 -16.000000 63 68 54
3.312500 -4.562500 -16.000000 63 68 54
3.375000 -4.562500 -16.000000 64 69 52
3.437500 -4.562500 -16.000000 64 68 51
3.500000 -4.562500 -16.000000 64 67 51
3.562500 -4.562500 -16.000000 64 68 54
3.625000 -4.562500 -16.000000 62 66 53
3.687500 -4.562500 -16.000000 61 64 52
3.750000 -4.562500 -16.000000 60 63 49
3.812500 -4.562500 -16.000000 60 64 50
3.875000 -4.562500 -16.000000 59 63 50
3.937500 -4.562500 -16.000000 59 63 48
4.000000 -4.562500 -16.000000 60 63 45
4.062500 -4.562500 -16.000000 60 64 43
4.125000 -4.562500 -16.000000 58 62 40
4.187500 -4.562500 -16.000000 59 63 44
4.250000 -4.562500 -16.000000 58 62 48
4.312500 -4.562500 -16.000000 57 60 50
4.375000 -4.562500 -16.000000 60 63 51
4.437500 -4.562500 -16.000000 62 65 50
4.500000 -4.562500 -16.000000 64 67 51
4.562500 -4.562500 -16.000000 69 72 52
4.625000 -4.562500 -16.000000 75 79 52
4.687500 -4.562500 -16.000000 77 82 52
4.750000 -4.562500 -16.000000 70 74 46
5.562500 -4.562500 -16.000000 158 163 135
5.625000 -4.562500 -16.000000 158 162 137
5.687500 -4.562500 -16.000000 159 163 136
5.750000 -4.562500 -16.000000 158 163 131
5.812500 -4.562500 -16.000000 159 163 127
5.875000 -4.562500 -16.000000 159 162 127
5.937500 -4.562500 -16.000000 158 162 129
6.000000 -4.562500 -16.000000 158 162 132
6.062500 -4.562500 -16.000000 157 161 134
6.125000 -4.562500 -16.000000 157 161 134
6.187500 -4.562500 -16.000000 164 166 136
6.250000 -4.562500 -16.000000 151 146 120
2.486154 -1.796923 -6.301538 85 72 56
2.487805 -1.780488 -6.243902 46 33 21
2.504559 -1.775076 -6.224924 40 32 16
6.500000 -4.562500 -16.000000 36 30 12
6.562500 -4.562500 -16.000000 34 29 11
6.625000 -4.562500 -16.000000 30 27 10
6.687500 -4.562500 -16.000000 29 25 12
6.750000 -4.562500 -16.000000 27 25 10
6.812500 -4.562500 -16.000000 27 25 8
6.875000 -4.562500 -16.000000 26 24 7
6.937500 -4.562500 -16.000000 24 20 4
7.000000 -4.562500 -16.000000 25 20 4
7.062500 -4.562500 -16.000000 25 22 5
7.125000 -4.562500 -16.000000 23 23 10
7.187500 -4.562500 -16.000000 23 23 12
7.250000 -4.562500 -16.000000 24 22 12
7.312500 -4.562500 -16.000000 25 22 13
7.375000 -4.562500 -16.000000 27 22 12
7.437500 -4.562500 -16.000000 30 23 10
7.500000 -4.562500 -16.000000 31 24 7
5.148515 -2.891089 -10.138614 29 26 10
5.175309 -2.883951 -10.113581 29 27 10
5.113801 -2.828087 -9.917676 30 28 11
5.054632 -2.774347 -9.729217 30 27 10
5.092637 -2.774347 -9.729217 28 24 8
5.142857 -2.780952 -9.752381 27 22 9
5.218225 -2.800959 -9.822542 28 23 10
5.269231 -2.807692 -9.846154 28 24 9
5.359223 -2.834951 -9.941748 27 24 9
5.424390 -2.848780 -9.990244 23 21 11
5.476773 -2.855746 -10.014670 24 27 18
5.529412 -2.862745 -10.039216 103 113 90
5.568627 -2.862745 -10.039216 140 151 121
5.607843 -2.862745 -10.039216 136 143 119
5.551807 -2.814458 -9.869880 136 141 122
5.550239 -2.794258 -9.799043 138 142 123
5.588517 -2.794258 -9.799043 138 142 121
5.653846 -2.807692 -9.846154 138 141 120
5.706024 -2.814458 -9.869880 136 141 121
-8.682594 -4.040956 -13.979522 107 80 34
-8.657535 -4.054794 -14.027397 105 79 33
-8.544218 -4.027211 -13.931973 104 79 31
-8.489796 -4.027211 -13.931973 103 79 33
-8.435374 -4.027211 -13.931973 100 77 33
-8.555555 -4.111111 -14.222222 97 75 31
-8.441380 -4.082758 -14.124138 97 74 30
-8.328767 -4.054794 -14.027397 97 73 30
-8.217687 -4.027211 -13.931973 101 77 32
-8.163265 -4.027211 -13.931973 106 85 35
-9.062500 -4.625000 -16.000000 108 82 28
-8.470589 -4.352941 -15.058824 110 85 29
-8.350365 -4.321168 -14.948905 116 92 39
-8.291971 -4.321168 -14.948905 114 91 40
-8.028470 -4.213523 -14.576512 113 89 40
-7.915195 -4.183745 -14.473498 113 88 40
-7.722222 -4.111111 -14.222222 109 83 36
-8.147601 -4.369004 -15.114391 113 87 38
-8.562500 -4.625000 -16.000000 112 86 37
-8.500000 -4.625000 -16.000000 111 85 40
-8.437500 -4.625000 -16.000000 108 83 42
-8.375000 -4.625000 -16.000000 110 84 42
-8.312500 -4.625000 -16.000000 113 88 40
-8.250000 -4.625000 -16.000000 116 93 39
-8.187500 -4.625000 -16.000000 118 96 38
-8.125000 -4.625000 -16.000000 115 94 35
-8.062500 -4.625000 -16.000000 113 91 34
-8.000000 -4.625000 -16.000000 112 88 31
-7.937500 -4.625000 -16.000000 113 88 30
-7.578948 -4.451128 -15.398497 113 89 30
-7.434944 -4.401487 -15.226766 113 90 33
-7.294117 -4.352941 -15.058824 111 91 36
-7.235294 -4.352941 -15.058824 113 93 39
-7.176471 -4.352941 -15.058824 112 91 39
-2.542466 -1.621918 -5.610959 23 20 4
-2.500000 -1.608696 -5.565217 38 35 11
-2.471545 -1.604336 -5.550136 48 46 22
-2.449864 -1.604336 -5.550136 46 44 25
-2.438095 -1.610884 -5.572789 33 30 14
-2.439560 -1.626374 -5.626374 35 29 15
-5.221557 -3.544910 -12.263474 135 138 108
-5.173653 -3.544910 -12.263474 142 148 113
-5.125749 -3.544910 -12.263474 140 145 111
-5.186544 -3.620795 -12.525994 140 144 111
-5.562500 -4.625000 -16.000000 139 141 102
-5.500000 -4.625000 -16.000000 139 141 100
-5.437500 -4.625000 -16.000000 138 139 104
-5.375000 -4.625000 -16.000000 137 139 108
-5.312500 -4.625000 -16.000000 138 139 108
-5.250000 -4.625000 -16.000000 138 139 104
-5.187500 -4.625000 -16.000000 138 139 100
-5.125000 -4.625000 -16.000000 138 139 95
-5.062500 -4.625000 -16.000000 137 138 94
-5.000000 -4.625000 -16.000000 137 139 96
-4.937500 -4.625000 -16.000000 137 139 99
-4.875000 -4.625000 -16.000000 137 139 100
-4.812500 -4.625000 -16.000000 132 135 99
-4.750000 -4.625000 -16.000000 130 135 102
-4.437500 -4.625000 -16.000000 135 137 101
-4.375000 -4.625000 -16.000000 136 138 102
-1.096210 -1.725947 -5.970846 141 141 103
-1.069767 -1.720930 -5.953488 141 140 104
-1.210084 -1.989916 -6.884034 141 141 105
-1.213793 -2.041379 -7.062069 141 142 104
-1.186207 -2.041379 -7.062069 140 142 102
-0.779026 -1.478152 -5.113608 135 129 88
-0.474629 -0.924278 -3.197502 78 63 29
-0.460342 -0.920684 -3.185070 56 37 10
-0.447205 -0.919255 -3.180124 59 40 14
-0.433437 -0.916409 -3.170279 58 40 12
-0.421053 -0.916409 -3.170279 56 39 12
-0.415748 -0.932283 -3.225197 56 42 17
-0.403785 -0.933754 -3.230284 54 41 18
-0.390244 -0.931550 -3.222659 51 40 18
-0.339651 -0.897650 -3.105383 48 39 26
-0.325546 -0.892238 -3.086662 47 38 23
-0.312782 -0.890226 -3.079699 46 38 22
-0.300752 -0.890226 -3.079699 46 39 23
-1.025641 -3.794872 -13.128205 48 38 10
-0.958991 -3.735016 -12.921136 47 37 13
-0.908517 -3.735016 -12.921136 44 34 16
-0.159893 -0.788807 -2.728848 42 33 15
-0.147660 -0.780488 -2.700066 44 35 12
-0.136662 -0.777924 -2.691196 43 34 12
-0.125902 -0.776393 -2.685902 50 45 20
-0.115410 -0.776393 -2.685902 121 121 86
-0.104918 -0.776393 -2.685902 154 157 113
-0.238411 -1.960265 -6.781457 133 134 97
-0.216949 -2.006780 -6.942373 74 73 49
-0.179775 -4.434457 -15.340824 74 74 52
-0.118519 -4.385185 -15.170370 78 79 53
-0.058824 -4.352941 -15.058824 79 81 53
0.000000 -4.321168 -14.948905 76 79 54
0.058182 -4.305455 -14.894546 76 78 54
0.115523 -4.274368 -14.787004 77 79 51
0.164384 -4.054794 -14.027397 76 80 51
0.211921 -3.920530 -13.562914 74 78 52
0.268456 -3.973154 -13.744967 75 77 53
0.327645 -4.040956 -13.979522 75 76 53
0.382253 -4.040956 -13.979522 78 79 57
0.432432 -4.000000 -13.837838 77 78 52
0.486486 -4.000000 -13.837838 78 79 50
0.551724 -4.082758 -14.124138 76 77 49
0.617544 -4.154386 -14.371930 74 76 51
0.678445 -4.183745 -14.473498 76 78 57
0.734982 -4.183745 -14.473498 76 78 59
0.791519 -4.183745 -14.473498 76 78 57
0.839161 -4.139860 -14.321678 80 82 60
0.898246 -4.154386 -14.371930 81 82 61
1.250000 -4.625000 -16.000000 70 74 53
1.312500 -4.625000 -16.000000 67 70 52
1.375000 -4.625000 -16.000000 65 68 51
1.437500 -4.625000 -16.000000 63 67 48
1.500000 -4.625000 -16.000000 62 67 44
1.562500 -4.625000 -16.000000 61 65 43
1.625000 -4.625000 -16.000000 60 64 45
1.687500 -4.625000 -16.000000 60 65 48
1.750000 -4.625000 -16.000000 65 70 56
1.812500 -4.625000 -16.000000 59 64 50
1.875000 -4.625000 -16.000000 61 66 50
1.937500 -4.625000 -16.000000 62 67 52
2.000000 -4.625000 -16.000000 62 66 53
2.062500 -4.625000 -16.000000 63 68 53
2.125000 -4.625000 -16.000000 62 67 50
2.187500 -4.625000 -16.000000 61 67 48
2.250000 -4.625000 -16.000000 63 70 48
2.312500 -4.625000 -16.000000 64 71 50
2.375000 -4.625000 -16.000000 63 68 49
2.437500 -4.625000 -16.000000 62 65 47
2.500000 -4.625000 -16.000000 62 66 49
2.625000 -4.625000 -16.000000 66 70 57
2.687500 -4.625000 -16.000000 70 75 57
2.750000 -4.625000 -16.000000 69 73 53
2.812500 -4.625000 -16.000000 70 73 55
2.875000 -4.625000 -16.000000 71 74 58
2.937500 -4.625000 -16.000000 70 72 60
3.000000 -4.625000 -16.000000 67 70 59
3.250000 -4.625000 -16.000000 65 68 52
3.312500 -4.625000 -16.000000 66 69 52
3.375000 -4.625000 -16.000000 65 68 50
3.437500 -4.625000 -16.000000 64 66 52
3.500000 -4.625000 -16.000000 63 66 54
3.562500 -4.625000 -16.000000 61 63 55
3.625000 -4.625000 -16.000000 60 61 54
3.687500 -4.625000 -16.000000 60 62 51
3.750000 -4.625000 -16.000000 62 65 47
3.812500 -4.625000 -16.000000 61 65 46
3.875000 -4.625000 -16.000000 61 65 48
3.803774 -4.467925 -15.456604 61 65 47
4.000000 -4.625000 -16.000000 60 64 42
4.062500 -4.625000 -16.000000 61 65 40
4.125000 -4.625000 -16.000000 60 64 40
4.187500 -4.625000 -16.000000 62 66 43
4.250000 -4.625000 -16.000000 63 67 50
4.312500 -4.625000 -16.000000 62 66 52
4.375000 -4.625000 -16.000000 62 66 50
4.437500 -4.625000 -16.000000 63 67 47
4.500000 -4.625000 -16.000000 69 73 52
4.562500 -4.625000 -16.000000 69 73 49
4.625000 -4.625000 -16.000000 73 77 51
4.687500 -4.625000 -16.000000 74 77 52
4.750000 -4.625000 -16.000000 74 77 54
4.812500 -4.625000 -16.000000 69 72 52
4.875000 -4.625000 -16.000000 63 67 46
4.937500 -4.625000 -16.000000 62 66 43
5.000000 -4.625000 -16.000000 61 66 41
5.625000 -4.625000 -16.000000 158 162 136
5.687500 -4.625000 -16.000000 158 163 134
5.750000 -4.625000 -16.000000 157 162 129
5.812500 -4.625000 -16.000000 157 162 127
5.875000 -4.625000 -16.000000 158 161 128
5.937500 -4.625000 -16.000000 158 161 129
6.000000 -4.625000 -16.000000 157 161 130
6.062500 -4.625000 -16.000000 157 160 130
6.125000 -4.625000 -16.000000 156 160 131
6.187500 -4.625000 -16.000000 156 161 130
6.250000 -4.625000 -16.000000 163 166 132
6.312500 -4.625000 -16.000000 149 145 115
6.687500 -4.625000 -16.000000 30 25 11
6.750000 -4.625000 -16.000000 27 24 11
6.812500 -4.625000 -16.000000 27 24 10
6.875000 -4.625000 -16.000000 27 24 6
6.937500 -4.625000 -16.000000 27 22 3
7.000000 -4.625000 -16.000000 27 21 4
7.062500 -4.625000 -16.000000 25 22 3
7.125000 -4.625000 -16.000000 25 23 3
7.187500 -4.625000 -16.000000 24 24 6
7.250000 -4.625000 -16.000000 25 24 8
7.312500 -4.625000 -16.000000 27 23 8
7.375000 -4.625000 -16.000000 29 23 7
7.437500 -4.625000 -16.000000 30 24 7
5.148515 -2.930693 -10.138614 29 25 8
5.062802 -2.859903 -9.893720 30 27 8
5.052631 -2.832536 -9.799043 30 27 8
5.054632 -2.812351 -9.729217 29 27 8
5.092637 -2.812351 -9.729217 28 24 10
5.142857 -2.819048 -9.752381 24 20 10
5.180953 -2.819048 -9.752381 28 25 15
5.206651 -2.812351 -9.729217 27 24 13
5.244656 -2.812351 -9.729217 27 23 12
5.346154 -2.846154 -9.846154 25 22 14
5.384615 -2.846154 -9.846154 18 19 10
5.436144 -2.853012 -9.869880 75 83 63
5.487923 -2.859903 -9.893720 135 148 119
5.513253 -2.853012 -9.869880 136 146 119
5.472684 -2.812351 -9.729217 137 143 120
5.510689 -2.812351 -9.729217 137 143 121
5.548694 -2.812351 -9.729217 137 142 120
5.626794 -2.832536 -9.799043 138 142 120
5.692307 -2.846154 -9.846154 138 143 121
5.744578 -2.853012 -9.869880 136 141 119
-8.712329 -4.109589 -14.027397 105 81 34
-8.747405 -4.152249 -14.173011 104 81 35
-8.602739 -4.109589 -14.027397 102 79 36
-8.696864 -4.181185 -14.271777 99 78 39
-8.585366 -4.181185 -14.271777 92 72 32
-8.500000 -4.166667 -14.222222 92 70 30
-8.357388 -4.123711 -14.075602 93 70 30
-8.217687 -4.081633 -13.931973 102 79 35
-8.080808 -4.040404 -13.791245 107 85 35
-9.062500 -4.687500 -16.000000 106 80 28
-8.565056 -4.460967 -15.226766 110 83 29
-8.411765 -4.411765 -15.058824 116 91 37
-8.687500 -4.687500 -16.000000 110 86 38
-8.625000 -4.687500 -16.000000 111 88 39
-8.562500 -4.687500 -16.000000 109 86 38
-8.500000 -4.687500 -16.000000 107 82 38
-8.437500 -4.687500 -16.000000 108 83 42
-8.375000 -4.687500 -16.000000 110 82 42
-8.312500 -4.687500 -16.000000 111 83 39
-8.250000 -4.687500 -16.000000 115 88 39
-8.187500 -4.687500 -16.000000 116 92 39
-8.125000 -4.687500 -16.000000 113 90 37
-7.505455 -4.363636 -14.894546 112 90 37
-7.447273 -4.363636 -14.894546 111 89 34
-7.309352 -4.316547 -14.733813 114 91 33
-7.251799 -4.316547 -14.733813 115 94 34
-7.272727 -4.363636 -14.894546 112 91 35
-7.240876 -4.379562 -14.948905 111 90 38
-7.182482 -4.379562 -14.948905 112 91 42
-2.542466 -1.643836 -5.610959 24 23 6
-2.500000 -1.630435 -5.565217 40 39 13
-2.478261 -1.630435 -5.565217 48 49 21
-2.456522 -1.630435 -5.565217 44 43 20
-2.438095 -1.632653 -5.572789 34 30 12
-2.432877 -1.643836 -5.610959 39 31 13
-2.417583 -1.648352 -5.626374 84 79 55
-5.221557 -3.592814 -12.263474 140 142 111
-5.220544 -3.625378 -12.374622 141 145 111
-5.172205 -3.625378 -12.374622 140 144 109
-5.234568 -3.703704 -12.641975 140 144 109
-5.137615 -3.669725 -12.525994 141 143 110
-5.027190 -3.625378 -12.374622 141 142 110
-5.024390 -3.658537 -12.487804 140 142 112
-5.562500 -4.687500 -16.000000 138 142 103
-5.500000 -4.687500 -16.000000 138 141 100
-5.437500 -4.687500 -16.000000 138 140 101
-5.375000 -4.687500 -16.000000 137 139 103
-5.312500 -4.687500 -16.000000 138 139 105
-5.250000 -4.687500 -16.000000 138 139 103
-5.187500 -4.687500 -16.000000 138 139 101
-5.125000 -4.687500 -16.000000 137 138 98
-5.062500 -4.687500 -16.000000 136 137 95
-5.000000 -4.687500 -16.000000 137 139 96
-4.937500 -4.687500 -16.000000 137 139 98
-4.875000 -4.687500 -16.000000 136 138 99
-4.812500 -4.687500 -16.000000 133 136 96
-4.750000 -4.687500 -16.000000 130 134 95
-4.687500 -4.687500 -16.000000 132 135 99
-4.625000 -4.687500 -16.000000 132 136 100
-4.437500 -4.687500 -16.000000 134 136 97
-4.375000 -4.687500 -16.000000 135 138 100
-1.096210 -1.749271 -5.970846 141 141 104
-1.072886 -1.749271 -5.970846 141 141 105
-1.237113 -2.061856 -7.037801 142 141 105
-1.213793 -2.068965 -7.062069 141 142 105
-0.488645 -0.939702 -3.207518 106 95 56
-0.475000 -0.937500 -3.200000 61 43 13
-0.461778 -0.936037 -3.195008 57 39 10
-0.446858 -0.930954 -3.177657 57 42 11
-0.433437 -0.928793 -3.170279 55 41 10
-0.421053 -0.928793 -3.170279 55 41 13
-0.415421 -0.944138 -3.222659 52 39 17
-0.402832 -0.944138 -3.222659 51 40 20
-0.388410 -0.939702 -3.207518 50 40 20
-0.375881 -0.939702 -3.207518 49 39 20
-0.327521 -0.909780 -3.105383 48 38 19
-0.313489 -0.904295 -3.086662 47 37 19
-1.035599 -3.883495 -13.255664 45 36 10
-0.958991 -3.785489 -12.921136 43 36 14
-0.908517 -3.785489 -12.921136 41 34 17
-0.158940 -0.794702 -2.712583 40 31 17
-0.147368 -0.789474 -2.694737 44 33 16
-0.136573 -0.787919 -2.689429 42 33 16
-0.125984 -0.787402 -2.687664 57 56 34
-0.115410 -0.786885 -2.685902 135 139 107
-0.105125 -0.788436 -2.691196 149 155 118
-0.234146 -1.951220 -6.660162 116 119 89
-0.209493 -1.963993 -6.703764 67 67 45
-0.250000 -4.687500 -16.000000 72 72 46
-0.179775 -4.494382 -15.340824 78 78 52
-0.117647 -4.411765 -15.058824 78 79 54
-0.058824 -4.411765 -15.058824 77 79 56
0.000000 -4.379562 -14.948905 75 77 55
0.058394 -4.379562 -14.948905 75 77 57
0.115942 -4.347826 -14.840580 76 78 57
0.173285 -4.332130 -14.787004 77 80 58
0.293040 -4.395605 -15.003663 74 76 52
0.339223 -4.240283 -14.473498 76 78 52
0.390244 -4.181185 -14.271777 78 78 54
0.444444 -4.166667 -14.222222 76 77 52
0.500000 -4.166667 -14.222222 77 78 52
0.563380 -4.225352 -14.422535 76 76 51
0.630824 -4.301075 -14.681004 74 75 49
0.680851 -4.255319 -14.524822 75 77 50
0.732394 -4.225352 -14.422535 75 77 51
0.785965 -4.210526 -14.371930 78 81 54
0.833333 -4.166667 -14.222222 83 86 57
0.888889 -4.166667 -14.222222 83 86 59
1.250000 -4.687500 -16.000000 67 69 55
1.312500 -4.687500 -16.000000 64 67 54
1.375000 -4.687500 -16.000000 63 67 56
1.437500 -4.687500 -16.000000 63 67 54
1.500000 -4.687500 -16.000000 63 68 49
1.562500 -4.687500 -16.000000 63 67 46
1.625000 -4.687500 -16.000000 60 64 44
1.687500 -4.687500 -16.000000 60 64 47
1.750000 -4.687500 -16.000000 61 65 47
1.812500 -4.687500 -16.000000 61 65 46
1.875000 -4.687500 -16.000000 62 66 48
1.937500 -4.687500 -16.000000 62 66 52
2.000000 -4.687500 -16.000000 60 65 53
2.062500 -4.687500 -16.000000 61 67 54
2.125000 -4.687500 -16.000000 61 66 51
2.187500 -4.687500 -16.000000 60 66 50
2.250000 -4.687500 -16.000000 62 67 50
2.312500 -4.687500 -16.000000 62 67 50
2.625000 -4.687500 -16.000000 67 71 48
2.687500 -4.687500 -16.000000 68 73 48
2.750000 -4.687500 -16.000000 68 72 49
2.812500 -4.687500 -16.000000 69 72 54
2.875000 -4.687500 -16.000000 70 73 55
2.937500 -4.687500 -16.000000 68 70 53
3.000000 -4.687500 -16.000000 65 69 52
3.187500 -4.687500 -16.000000 68 73 56
3.250000 -4.687500 -16.000000 68 72 53
3.312500 -4.687500 -16.000000 69 73 52
3.375000 -4.687500 -16.000000 67 71 52
3.437500 -4.687500 -16.000000 65 69 54
3.500000 -4.687500 -16.000000 63 67 55
3.562500 -4.687500 -16.000000 61 64 54
3.625000 -4.687500 -16.000000 59 61 53
3.687500 -4.687500 -16.000000 57 59 51
3.750000 -4.687500 -16.000000 59 61 52
3.812500 -4.687500 -16.000000 60 62 51
3.743396 -4.528302 -15.456604 60 62 50
3.937500 -4.687500 -16.000000 61 63 48
4.000000 -4.687500 -16.000000 59 63 43
4.062500 -4.687500 -16.000000 59 63 40
4.125000 -4.687500 -16.000000 58 62 39
4.187500 -4.687500 -16.000000 59 62 41
4.250000 -4.687500 -16.000000 61 64 46
4.312500 -4.687500 -16.000000 60 63 49
4.375000 -4.687500 -16.000000 61 64 49
4.437500 -4.687500 -16.000000 61 64 46
4.500000 -4.687500 -16.000000 65 69 47
4.562500 -4.687500 -16.000000 68 72 49
4.625000 -4.687500 -16.000000 71 75 54
4.687500 -4.687500 -16.000000 75 78 59
4.750000 -4.687500 -16.000000 74 77 59
4.812500 -4.687500 -16.000000 73 76 59
4.875000 -4.687500 -16.000000 64 67 48
4.937500 -4.687500 -16.000000 59 62 41
5.000000 -4.687500 -16.000000 58 62 40
5.062500 -4.687500 -16.000000 58 62 40
5.125000 -4.687500 -16.000000 60 63 39
5.625000 -4.687500 -16.000000 157 162 133
5.687500 -4.687500 -16.000000 156 162 131
5.750000 -4.687500 -16.000000 156 161 129
5.812500 -4.687500 -16.000000 157 161 130
5.875000 -4.687500 -16.000000 157 161 130
5.937500 -4.687500 -16.000000 157 161 130
6.000000 -4.687500 -16.000000 157 161 127
6.062500 -4.687500 -16.000000 157 161 126
6.125000 -4.687500 -16.000000 156 161 127
6.187500 -4.687500 -16.000000 155 160 127
6.250000 -4.687500 -16.000000 155 160 124
6.312500 -4.687500 -16.000000 162 166 127
6.750000 -4.687500 -16.000000 32 27 7
6.812500 -4.687500 -16.000000 31 27 5
6.875000 -4.687500 -16.000000 29 25 2
6.937500 -4.687500 -16.000000 28 22 2
7.000000 -4.687500 -16.000000 28 22 6
7.062500 -4.687500 -16.000000 27 22 3
7.125000 -4.687500 -16.000000 27 23 1
7.187500 -4.687500 -16.000000 26 24 1
7.250000 -4.687500 -16.000000 26 23 5
7.312500 -4.687500 -16.000000 28 23 7
7.375000 -4.687500 -16.000000 27 20 5
4.976077 -2.870813 -9.799043 29 25 6
5.014354 -2.870813 -9.799043 31 27 6
5.004739 -2.843602 -9.706161 30 27 6
5.090909 -2.870813 -9.799043 29 25 5
5.092637 -2.850356 -9.729217 28 23 6
5.167464 -2.870813 -9.799043 25 20 7
5.156398 -2.843602 -9.706161 28 23 12
5.097674 -2.790698 -9.525581 28 23 10
5.134884 -2.790698 -9.525581 28 23 10
5.184149 -2.797203 -9.547786 27 22 11
5.245902 -2.810304 -9.592505 18 18 9
5.283372 -2.810304 -9.592505 45 54 40
5.345882 -2.823529 -9.637647 123 137 114
5.370892 -2.816901 -9.615024 136 147 120
5.408451 -2.816901 -9.615024 138 144 119
5.407926 -2.797203 -9.547786 137 143 120
5.419954 -2.784223 -9.503480 137 143 120
5.560284 -2.836879 -9.683215 137 143 120
5.678657 -2.877698 -9.822542 137 143 121
5.730769 -2.884615 -9.846154 138 142 120
5.755396 -2.877698 -9.822542 137 141 120
-8.833333 -4.222222 -14.222222 105 82 37
-8.870175 -4.266667 -14.371930 102 80 39
-9.167883 -4.437956 -14.948905 101 79 41
-9.109489 -4.437956 -14.948905 97 78 42
-8.444445 -4.222222 -14.222222 96 73 25
-8.107383 -4.080537 -13.744967 104 81 29
-8.053691 -4.080537 -13.744967 109 87 31
-9.125000 -4.750000 -16.000000 103 79 32
-9.062500 -4.750000 -16.000000 104 79 35
-9.000000 -4.750000 -16.000000 109 83 37
-8.687500 -4.750000 -16.000000 109 84 36
-8.625000 -4.750000 -16.000000 110 86 36
-8.562500 -4.750000 -16.000000 108 85 35
-8.500000 -4.750000 -16.000000 106 82 34
-8.437500 -4.750000 -16.000000 109 84 36
-8.375000 -4.750000 -16.000000 110 83 35
-8.312500 -4.750000 -16.000000 111 82 35
-8.250000 -4.750000 -16.000000 115 85 37
-8.187500 -4.750000 -16.000000 116 90 37
-8.125000 -4.750000 -16.000000 115 92 39
-7.505455 -4.421818 -14.894546 114 93 41
-7.366907 -4.374101 -14.733813 116 95 41
-7.205674 -4.312057 -14.524822 117 96 39
-7.048951 -4.251748 -14.321678 117 95 38
-6.993007 -4.251748 -14.321678 114 92 35
-6.961403 -4.266667 -14.371930 113 91 36
-7.156363 -4.421818 -14.894546 112 90 35
-2.570637 -1.684211 -5.673130 24 22 8
-2.520548 -1.665753 -5.610959 41 40 18
-2.478261 -1.652174 -5.565217 47 46 18
-2.456522 -1.652174 -5.565217 43 41 13
-2.438095 -1.654422 -5.572789 37 33 11
-2.432877 -1.665753 -5.610959 42 33 15
-2.444444 -1.688889 -5.688889 101 94 69
-5.221557 -3.640718 -12.263474 146 147 111
-5.333333 -3.753086 -12.641975 140 144 106
-5.235474 -3.718654 -12.525994 139 144 105
-5.250774 -3.764706 -12.681114 139 144 106
-5.201238 -3.764706 -12.681114 139 144 108
-5.073171 -3.707317 -12.487804 140 144 110
-5.150000 -3.800000 -12.800000 139 143 109
-5.562500 -4.750000 -16.000000 139 141 106
-5.500000 -4.750000 -16.000000 138 140 104
-5.437500 -4.750000 -16.000000 138 140 103
-5.375000 -4.750000 -16.000000 138 139 102
-5.312500 -4.750000 -16.000000 138 139 101
-5.250000 -4.750000 -16.000000 138 138 98
-5.187500 -4.750000 -16.000000 137 137 96
-5.125000 -4.750000 -16.000000 137 137 97
-5.062500 -4.750000 -16.000000 136 138 98
-5.000000 -4.750000 -16.000000 136 138 100
-4.937500 -4.750000 -16.000000 135 138 102
-4.875000 -4.750000 -16.000000 135 137 102
-4.812500 -4.750000 -16.000000 132 134 98
-4.750000 -4.750000 -16.000000 131 133 96
-4.687500 -4.750000 -16.000000 132 133 98
-4.625000 -4.750000 -16.000000 134 134 99
-4.562500 -4.750000 -16.000000 135 136 98
-4.500000 -4.750000 -16.000000 135 135 97
-4.437500 -4.750000 -16.000000 135 136 96
-4.375000 -4.750000 -16.000000 137 137 96
-4.312500 -4.750000 -16.000000 136 137 94
-1.046512 -1.767442 -5.953488 140 141 108
-1.209622 -2.089347 -7.037801 140 141 109
-0.488645 -0.952232 -3.207518 79 68 29
-0.475371 -0.950743 -3.202502 57 42 13
-0.462500 -0.950000 -3.200000 58 42 13
-0.446512 -0.942636 -3.175194 57 42 11
-0.433101 -0.940449 -3.167827 54 40 10
-0.421053 -0.941176 -3.170279 53 39 14
-0.415421 -0.956727 -3.222659 52 40 16
-0.402832 -0.956727 -3.222659 52 40 18
-0.388410 -0.952232 -3.207518 51 40 17
-0.375881 -0.952232 -3.207518 49 39 17
-1.381295 -4.374101 -14.733813 48 37 14
-1.295775 -4.281690 -14.422535 49 39 13
-1.243816 -4.296820 -14.473498 46 36 8
-1.187279 -4.296820 -14.473498 45 34 9
-1.099656 -4.178694 -14.075602 44 34 13
-1.020134 -4.080537 -13.744967 42 33 16
-0.932039 -3.935275 -13.255664 40 32 18
-0.855346 -3.823899 -12.880503 41 33 19
-0.169874 -0.806901 -2.717983 40 33 18
-0.158940 -0.805298 -2.712583 40 33 17
-0.147368 -0.800000 -2.694737 44 34 15
-0.136573 -0.798424 -2.689429 45 33 11
-0.126067 -0.798424 -2.689429 79 74 45
-0.115561 -0.798424 -2.689429 143 146 110
-0.105125 -0.798949 -2.691196 146 152 120
-0.231140 -1.951846 -6.574639 101 105 82
-0.207455 -1.970827 -6.638574 62 64 49
-0.183306 -1.990180 -6.703764 65 67 48
-0.250000 -4.750000 -16.000000 75 73 46
-0.179775 -4.554307 -15.340824 77 75 50
-0.117647 -4.470588 -15.058824 78 76 54
-0.058824 -4.470588 -15.058824 76 77 57
0.000000 -4.470588 -15.058824 75 77 56
0.059041 -4.487085 -15.114391 75 78 55
0.118959 -4.520446 -15.226766 76 79 56
0.187500 -4.750000 -16.000000 76 80 57
0.312500 -4.750000 -16.000000 75 77 55
0.352941 -4.470588 -15.058824 76 78 55
0.404332 -4.389892 -14.787004 75 77 57
0.452297 -4.296820 -14.473498 75 77 60
0.508834 -4.296820 -14.473498 73 75 57
0.569395 -4.327402 -14.576512 73 75 54
0.635379 -4.389892 -14.787004 73 76 50
0.693141 -4.389892 -14.787004 73 77 47
0.732394 -4.281690 -14.422535 77 81 48
0.777778 -4.222222 -14.222222 80 83 48
0.821918 -4.164383 -14.027397 82 84 49
0.876712 -4.164383 -14.027397 81 85 53
1.250000 -4.750000 -16.000000 62 65 50
1.312500 -4.750000 -16.000000 60 62 50
1.375000 -4.750000 -16.000000 60 63 54
1.437500 -4.750000 -16.000000 60 63 57
1.500000 -4.750000 -16.000000 59 62 54
1.562500 -4.750000 -16.000000 60 63 50
1.625000 -4.750000 -16.000000 60 63 45
1.687500 -4.750000 -16.000000 61 65 41
1.750000 -4.750000 -16.000000 60 64 37
1.812500 -4.750000 -16.000000 61 66 37
1.875000 -4.750000 -16.000000 63 68 38
1.937500 -4.750000 -16.000000 63 68 42
2.000000 -4.750000 -16.000000 61 66 49
2.062500 -4.750000 -16.000000 61 66 52
2.125000 -4.750000 -16.000000 62 67 50
2.187500 -4.750000 -16.000000 62 67 46
2.250000 -4.750000 -16.000000 61 66 44
2.312500 -4.750000 -16.000000 62 66 46
2.500000 -4.750000 -16.000000 60 63 47
2.562500 -4.750000 -16.000000 62 68 46
2.625000 -4.750000 -16.000000 65 71 47
2.687500 -4.750000 -16.000000 66 72 50
2.750000 -4.750000 -16.000000 68 73 54
2.812500 -4.750000 -16.000000 70 73 54
2.875000 -4.750000 -16.000000 70 73 53
2.937500 -4.750000 -16.000000 67 70 50
3.000000 -4.750000 -16.000000 66 69 49
3.062500 -4.750000 -16.000000 67 70 53
3.125000 -4.750000 -16.000000 69 72 57
3.187500 -4.750000 -16.000000 69 73 56
3.250000 -4.750000 -16.000000 69 73 53
3.312500 -4.750000 -16.000000 71 74 54
3.375000 -4.750000 -16.000000 69 72 54
3.437500 -4.750000 -16.000000 64 68 52
3.500000 -4.750000 -16.000000 62 67 53
3.562500 -4.750000 -16.000000 61 64 55
3.625000 -4.750000 -16.000000 59 61 54
3.687500 -4.750000 -16.000000 59 61 53
3.750000 -4.750000 -16.000000 59 62 51
3.683019 -4.588679 -15.456604 59 62 50
3.715356 -4.554307 -15.340824 60 63 48
3.775281 -4.554307 -15.340824 60 63 44
3.849624 -4.571429 -15.398497 59 62 43
4.062500 -4.750000 -16.000000 59 62 44
4.125000 -4.750000 -16.000000 56 59 43
4.187500 -4.750000 -16.000000 55 57 44
4.250000 -4.750000 -16.000000 53 56 43
4.312500 -4.750000 -16.000000 54 57 42
4.375000 -4.750000 -16.000000 56 59 40
4.437500 -4.750000 -16.000000 56 60 38
4.500000 -4.750000 -16.000000 58 61 39
4.562500 -4.750000 -16.000000 61 64 44
4.625000 -4.750000 -16.000000 63 66 50
4.687500 -4.750000 -16.000000 68 70 57
4.750000 -4.750000 -16.000000 70 73 57
4.812500 -4.750000 -16.000000 74 77 56
4.875000 -4.750000 -16.000000 70 74 52
4.937500 -4.750000 -16.000000 58 62 44
5.000000 -4.750000 -16.000000 54 57 43
5.062500 -4.750000 -16.000000 56 58 44
5.125000 -4.750000 -16.000000 58 62 42
5.687500 -4.750000 -16.000000 156 161 129
5.750000 -4.750000 -16.000000 156 162 128
5.812500 -4.750000 -16.000000 157 162 130
5.875000 -4.750000 -16.000000 156 161 130
5.937500 -4.750000 -16.000000 156 161 128
6.000000 -4.750000 -16.000000 155 161 126
6.062500 -4.750000 -16.000000 155 160 126
6.125000 -4.750000 -16.000000 155 160 128
6.187500 -4.750000 -16.000000 155 159 127
6.250000 -4.750000 -16.000000 155 159 124
6.312500 -4.750000 -16.000000 156 160 124
6.375000 -4.750000 -16.000000 161 164 130
6.437500 -4.750000 -16.000000 147 150 116
6.750000 -4.750000 -16.000000 34 28 7
6.812500 -4.750000 -16.000000 33 27 5
6.875000 -4.750000 -16.000000 31 25 3
6.937500 -4.750000 -16.000000 29 23 5
7.000000 -4.750000 -16.000000 29 24 6
7.062500 -4.750000 -16.000000 30 25 4
7.125000 -4.750000 -16.000000 28 23 2
7.187500 -4.750000 -16.000000 27 22 4
7.250000 -4.750000 -16.000000 26 21 6
7.312500 -4.750000 -16.000000 27 22 8
7.375000 -4.750000 -16.000000 27 21 6
4.837209 -2.827907 -9.525581 30 24 3
4.874419 -2.827907 -9.525581 31 26 3
4.934579 -2.841121 -9.570093 31 27 5
5.090909 -2.909091 -9.799043 30 25 7
5.060465 -2.827907 -9.525581 26 22 9
5.074074 -2.814815 -9.481482 27 22 9
5.087558 -2.801843 -9.437788 28 23 7
5.112644 -2.795402 -9.416092 27 23 7
5.161290 -2.801843 -9.437788 20 19 9
5.210162 -2.808314 -9.459584 29 34 26
5.247113 -2.808314 -9.459584 111 120 105
5.320930 -2.827907 -9.525581 138 147 123
5.358140 -2.827907 -9.525581 138 144 119
5.370370 -2.814815 -9.481482 137 144 119
5.407407 -2.814815 -9.481482 137 144 120
5.444445 -2.814815 -9.481482 137 143 123
5.494200 -2.821346 -9.503480 137 142 123
5.182609 -2.643478 -8.904347 138 142 123
5.150215 -2.609442 -8.789700 137 140 121
5.118644 -2.576271 -8.677966 137 141 122
5.130802 -2.565401 -8.641350 137 141 122
-8.926316 -4.322807 -14.371930 103 78 39
-9.294118 -4.529412 -15.058824 101 78 41
-9.269373 -4.546125 -15.114391 101 80 42
-9.210332 -4.546125 -15.114391 97 76 38
-9.151292 -4.546125 -15.114391 93 74 34
-9.062500 -4.812500 -16.000000 101 77 37
-8.355556 -4.562963 -15.170370 110 88 32
-8.296296 -4.562963 -15.170370 110 86 29
-8.687500 -4.812500 -16.000000 110 89 30
-8.625000 -4.812500 -16.000000 112 92 33
-8.562500 -4.812500 -16.000000 111 89 32
-8.500000 -4.812500 -16.000000 109 84 29
-8.437500 -4.812500 -16.000000 110 84 30
-8.375000 -4.812500 -16.000000 110 83 29
-8.312500 -4.812500 -16.000000 112 84 33
-8.250000 -4.812500 -16.000000 115 86 35
-8.187500 -4.812500 -16.000000 116 90 37
-8.125000 -4.812500 -16.000000 117 95 41
-7.616236 -4.546125 -15.114391 114 94 39
-7.288256 -4.384342 -14.576512 116 97 40
-7.104895 -4.307693 -14.321678 117 97 39
-6.951724 -4.248276 -14.124138 119 97 40
-6.825939 -4.204778 -13.979522 117 94 39
-6.657718 -4.134228 -13.744967 114 92 38
-6.881119 -4.307693 -14.321678 112 90 35
-2.588563 -1.718271 -5.712692 27 23 11
-2.544952 -1.704011 -5.665284 44 42 23
-2.508941 -1.694636 -5.634113 47 47 22
-2.486933 -1.694636 -5.634113 39 37 12
-2.475138 -1.701657 -5.657459 36 29 11
-2.470097 -1.713491 -5.696801 47 36 16
-2.458101 -1.720670 -5.720670 113 105 76
-5.253012 -3.710843 -12.337349 148 147 108
-5.316770 -3.826087 -12.720497 139 144 104
-5.283489 -3.838006 -12.760124 137 142 106
-5.250000 -3.850000 -12.800000 138 143 111
-5.200000 -3.850000 -12.800000 139 143 113
-5.562500 -4.812500 -16.000000 139 140 103
-5.500000 -4.812500 -16.000000 139 139 100
-5.437500 -4.812500 -16.000000 139 139 101
-5.187500 -4.812500 -16.000000 137 138 93
-5.125000 -4.812500 -16.000000 137 138 96
-5.062500 -4.812500 -16.000000 137 139 99
-5.000000 -4.812500 -16.000000 135 137 99
-4.812500 -4.812500 -16.000000 130 132 98
-4.750000 -4.812500 -16.000000 131 132 97
-4.687500 -4.812500 -16.000000 132 133 96
-4.625000 -4.812500 -16.000000 134 134 96
-4.562500 -4.812500 -16.000000 135 136 98
-4.500000 -4.812500 -16.000000 134 137 98
-4.437500 -4.812500 -16.000000 135 137 99
-4.375000 -4.812500 -16.000000 137 137 99
-4.312500 -4.812500 -16.000000 136 137 96
-4.250000 -4.812500 -16.000000 136 138 94
-4.187500 -4.812500 -16.000000 136 138 94
-4.125000 -4.812500 -16.000000 136 138 95
-1.073548 -1.589677 -5.285161 139 141 98
-1.052903 -1.589677 -5.285161 139 141 99
-0.909091 -1.555556 -5.171717 139 141 109
-0.888889 -1.555556 -5.171717 139 142 113
-0.503541 -0.969316 -3.222659 106 98 63
-0.489028 -0.965517 -3.210031 59 46 19
-0.476116 -0.964761 -3.207518 56 41 19
-0.461778 -0.960998 -3.195008 58 41 17
-0.445820 -0.953560 -3.170279 57 41 13
-0.432099 -0.950617 -3.160494 55 39 9
-0.420077 -0.951351 -3.162934 55 40 8
-0.414118 -0.966274 -3.212549 55 40 11
-0.401569 -0.966274 -3.212549 53 38 13
-0.388106 -0.964006 -3.205008 52 37 14
-0.375881 -0.964761 -3.207518 51 37 14
-1.438849 -4.431654 -14.733813 49 38 16
-1.342657 -4.307693 -14.321678 47 38 13
-1.286713 -4.307693 -14.321678 46 38 11
-1.239437 -4.338028 -14.422535 45 36 9
-1.187279 -4.353357 -14.473498 44 35 10
-1.130742 -4.353357 -14.473498 43 33 15
-0.181213 -0.820786 -2.728848 41 33 22
-0.169761 -0.816976 -2.716180 40 32 19
-0.158940 -0.815894 -2.712583 42 34 17
-0.147368 -0.810526 -2.694737 45 35 14
-0.136662 -0.809461 -2.691196 47 36 10
-0.126067 -0.808930 -2.689429 101 94 59
-0.115637 -0.809461 -2.691196 151 152 107
-0.105125 -0.809461 -2.691196 146 150 111
-0.230769 -1.974359 -6.564103 94 97 70
-0.205457 -1.977528 -6.574639 63 65 48
-0.181524 -1.996758 -6.638574 65 67 49
-0.375000 -4.812500 -16.000000 64 67 44
-0.312500 -4.812500 -16.000000 68 70 44
-0.250000 -4.812500 -16.000000 79 78 50
-0.181132 -4.649056 -15.456604 79 76 49
-0.118959 -4.579926 -15.226766 77 75 50
-0.059041 -4.546125 -15.114391 76 78 53
0.000000 -4.597015 -15.283582 77 81 54
0.059701 -4.597015 -15.283582 77 81 53
0.119850 -4.614232 -15.340824 76 80 53
